# .PCD v0.7 - Point Cloud Data file format
VERSION 0.7
FIELDS x y z
SIZE 4 4 4
TYPE F F F
COUNT 1 1 1
WIDTH 1
HEIGHT 128
VIEWPOINT 0 0 0 1 0 0 0
POINTS 128
DATA ascii
133.44844 67.150864 139.96042
134.20103 67.249855 138.6877
134.77577 65.980888 137.21689
135.35048 65.464493 135.97127
136.12158 64.77076 134.54575
136.84712 64.431381 133.50877
137.66808 63.902447 132.35066
138.30511 63.417889 131.36005
139.08606 62.682968 130.16924
140.31444 62.396835 129.06837
141.2411 62.099308 128.35002
142.27829 62.105278 127.25636
143.26738 61.722088 126.60527
144.29611 61.81934 125.49288
145.40453 61.283619 124.99872
146.32036 60.112888 124.42244
147.32448 59.775909 123.51243
148.37622 59.200043 122.79065
149.93668 58.977684 122.16141
151.33817 58.687286 121.63808
152.85046 58.186314 120.97771
154.04657 57.818245 120.5007
155.42361 57.719597 120.20181
156.96692 58.009296 120.12119
158.36536 58.760918 119.90137
159.95953 58.92841 119.82848
161.1144 58.72871 119.3811
162.1602 58.314957 119.2224
163.47012 58.000301 118.95943
164.66884 58.036797 118.51126
165.97586 57.68206 118.42931
167.13843 57.436123 118.25854
168.2177 57.220955 118.08152
169.57851 57.066124 118.08422
170.76736 56.81089 118.01189
172.27574 56.326782 118.17038
173.79984 56.233887 118.71033
175.47412 56.35738 119.36348
177.94994 57.425987 120.43079
179.33699 56.79747 120.44244
176.77177 56.585022 120.03846
180.24274 56.231297 120.54617
181.48969 56.570557 120.52312
183.04987 56.500885 122.52443
181.82674 55.735241 120.56411
184.77573 56.870594 123.21899
186.40399 56.789181 123.98089
182.48454 55.331226 121.09765
187.5766 56.744545 124.56258
188.56384 57.65136 125.80051
189.51393 56.878803 126.22963
190.82664 57.128166 127.2104
192.33188 56.10112 127.34914
193.21761 55.885769 127.56815
193.82594 56.943489 128.36784
194.5882 56.430054 128.49782
196.06331 56.30127 129.29047
197.22763 56.15477 129.62151
198.62859 55.680637 130.05084
199.52391 56.037586 130.63016
200.49478 56.561329 131.33727
202.01875 56.995396 132.6358
203.32111 57.273743 133.66037
201.31981 56.524429 132.02452
202.45938 69.906471 142.27669
204.5452 56.980629 134.82542
205.47581 55.73122 135.58574
206.46815 56.094627 136.26416
207.72679 55.987309 137.19458
209.15601 55.315281 137.83568
210.73688 54.105915 138.40419
68.835556 106.30551 146.95251
69.946205 105.37975 146.46962
70.99736 104.27592 145.98738
71.854866 103.53783 145.67911
72.610825 103.00875 145.31749
73.601959 102.20058 145.07597
74.817444 101.3558 144.83008
75.973114 100.47578 144.66534
77.087379 99.356384 144.86147
78.352737 98.537392 144.8904
79.650902 97.595428 145.05882
80.890015 96.510368 145.4568
82.46666 95.479294 145.62511
83.293839 94.616852 146.06728
84.902412 93.199883 146.65057
84.178574 93.86084 146.35544
85.708588 92.411064 147.23109
86.99926 91.375237 147.87282
68.361549 106.81183 145.56413
68.361259 107.43424 144.2816
68.578461 108.2148 142.87372
68.316032 108.18011 140.84694
67.998329 108.08028 139.36327
68.223824 108.35359 138.13599
68.048119 108.83491 136.67653
68.282082 109.41152 135.07739
67.989349 109.31577 133.29327
67.834824 109.29449 131.7386
67.952194 109.24726 130.38841
67.852234 109.00591 128.19461
67.810516 108.96531 129.46616
68.011856 108.73682 126.4697
68.213539 108.58917 125.24996
134.60847 69.543373 184.72186
133.62592 68.859329 183.50395
132.61362 68.338959 182.23349
131.47429 67.674644 180.68063
130.82254 66.951813 179.13994
130.53355 66.254227 177.37022
130.48331 65.72522 176.09517
130.27632 65.093918 174.5359
130.29646 64.60585 172.81758
130.17947 64.235153 171.36111
129.99831 63.804401 169.63193
129.8757 63.58931 168.09283
129.15535 63.727222 166.37433
128.25838 63.961597 165.20242
128.01315 63.95779 164.03038
127.46083 64.487175 162.31453
126.68412 65.452461 159.93973
126.96386 65.063538 160.94403
126.39118 68.099007 157.3067
126.39823 67.035454 158.15329
188.63025 56.063965 125.46342
189.23488 55.476295 125.94939
190.49768 55.365814 126.32722
126.28892 66.148163 158.77484
