# .PCD v0.7 - Point Cloud Data file format
VERSION 0.7
FIELDS x y z
SIZE 4 4 4
TYPE F F F
COUNT 1 1 1
WIDTH 1
HEIGHT 69
VIEWPOINT 0 0 0 1 0 0 0
POINTS 69
DATA ascii
153.92044 57.781757 120.58434
155.18362 57.772163 120.21019
156.6373 57.953709 120.09751
158.50746 58.254257 120.24109
160.33441 58.329666 120.16424
161.79367 57.813065 119.96243
163.1353 57.376728 119.73755
164.4295 57.305153 119.54607
165.96899 57.08268 119.27531
167.68292 56.820602 118.88223
169.58601 56.65659 118.83852
171.12692 56.548126 118.39896
173.32379 56.337223 118.39846
175.2627 56.756893 118.90273
176.73265 57.563046 119.29064
178.2545 58.808712 119.83625
179.19048 57.055923 120.36942
180.76321 56.300442 120.62398
182.50528 57.031612 121.30924
183.94875 57.721146 122.3762
185.41707 56.77689 123.55381
186.83792 56.566845 124.38293
188.07413 56.412079 125.00397
189.2005 56.006924 125.50198
190.41667 55.193516 126.58193
191.70442 54.744663 127.21222
192.59375 54.173622 128.17271
194.24829 54.080627 129.48256
196.36324 53.87669 130.03432
198.10413 54.219753 130.32207
199.25629 53.904709 130.69901
201.2282 56.08374 132.05614
202.30547 55.9827 133.25255
203.59984 56.510738 134.17926
125.53573 76.168274 155.776
126.36584 74.585648 154.00674
127.02274 72.903976 152.4292
127.9576 71.798744 150.80856
128.58124 70.857521 149.26602
129.46928 69.600731 147.60918
129.86176 68.437195 146.53889
130.60927 67.036514 144.72469
131.15948 66.933121 143.68779
131.82303 66.517471 142.2778
132.57494 65.186874 141.32727
133.17772 65.261467 140.42059
133.94731 64.913826 139.35031
134.61386 64.493187 138.4283
135.12 63.839893 137.44189
135.86501 63.258957 136.01367
136.7162 62.680077 134.4426
137.23299 62.610924 133.2988
137.9045 62.522099 132.2281
138.55106 62.708412 131.06502
139.32248 62.640945 129.90379
140.4313 63.150764 128.74161
141.22691 62.66848 127.85633
142.02907 62.837791 126.86223
143.29218 62.668003 125.75025
146.62508 65.242851 126.00105
144.5737 62.231056 124.85439
145.528 61.773029 124.13451
147.06186 61.877281 123.64512
148.54855 62.244583 123.07527
149.12257 61.468895 122.43915
149.76831 59.973778 121.61096
151.13896 59.491611 121.19988
152.09631 59.255562 120.72415
153.11009 58.286991 120.73154
